0.41666666666666674 0.41666666666666674 0.248
-0.9166666666666666 -0.9166666666666666 0.24
-0.5277777777777778 -0.5277777777777778 0.24
-0.4444444444444444 -0.4444444444444444 0.24
-0.4444444444444444 -0.4444444444444444 0.24
-0.41666666666666663 -0.41666666666666663 0.24
-0.2777777777777778 -0.2777777777777778 0.24
-0.25 -0.25 0.24
-0.2222222222222222 -0.2222222222222222 0.24
-0.19444444444444442 -0.19444444444444442 0.24
-0.19444444444444442 -0.19444444444444442 0.24
-0.19444444444444442 -0.19444444444444442 0.24
-0.19444444444444442 -0.19444444444444442 0.24
-0.19444444444444442 -0.19444444444444442 0.24
-0.08333333333333337 -0.08333333333333337 0.24
-0.08333333333333337 -0.08333333333333337 0.24
-0.08333333333333337 -0.08333333333333337 0.24
-0.05555555555555558 -0.05555555555555558 0.24
-0.05555555555555558 -0.05555555555555558 0.24
-0.02777777777777779 -0.02777777777777779 0.24
0.0 0.0 0.24
0.0 0.0 0.24
0.05555555555555558 0.05555555555555558 0.24
0.05555555555555558 0.05555555555555558 0.24
0.11111111111111116 0.11111111111111116 0.24
0.11111111111111116 0.11111111111111116 0.24
0.16666666666666674 0.16666666666666674 0.24
0.19444444444444442 0.19444444444444442 0.24
0.22222222222222232 0.22222222222222232 0.24
0.2777777777777777 0.2777777777777777 0.24
0.33333333333333326 0.33333333333333326 0.24
0.38888888888888884 0.38888888888888884 0.24
0.41666666666666674 0.41666666666666674 0.24
0.4444444444444444 0.4444444444444444 0.24
0.4444444444444444 0.4444444444444444 0.24
0.4444444444444444 0.4444444444444444 0.24
-0.6666666666666667 -0.6666666666666667 0.23199999999999998
-0.33333333333333337 -0.33333333333333337 0.23199999999999998
-0.2777777777777778 -0.2777777777777778 0.23199999999999998
-0.25 -0.25 0.23199999999999998
-0.19444444444444442 -0.19444444444444442 0.23199999999999998
-0.19444444444444442 -0.19444444444444442 0.23199999999999998
-0.16666666666666663 -0.16666666666666663 0.23199999999999998
-0.16666666666666663 -0.16666666666666663 0.23199999999999998
-0.16666666666666663 -0.16666666666666663 0.23199999999999998
-0.11111111111111116 -0.11111111111111116 0.23199999999999998
-0.11111111111111116 -0.11111111111111116 0.23199999999999998
-0.11111111111111116 -0.11111111111111116 0.23199999999999998
-0.08333333333333337 -0.08333333333333337 0.23199999999999998
-0.08333333333333337 -0.08333333333333337 0.23199999999999998
-0.05555555555555558 -0.05555555555555558 0.23199999999999998
-0.05555555555555558 -0.05555555555555558 0.23199999999999998
-0.02777777777777779 -0.02777777777777779 0.23199999999999998
-0.02777777777777779 -0.02777777777777779 0.23199999999999998
0.0 0.0 0.23199999999999998
0.0 0.0 0.23199999999999998
0.02777777777777768 0.02777777777777768 0.23199999999999998
0.02777777777777768 0.02777777777777768 0.23199999999999998
0.08333333333333326 0.08333333333333326 0.23199999999999998
0.08333333333333326 0.08333333333333326 0.23199999999999998
0.13888888888888884 0.13888888888888884 0.23199999999999998
0.3055555555555556 0.3055555555555556 0.23199999999999998
0.36111111111111116 0.36111111111111116 0.23199999999999998
0.41666666666666674 0.41666666666666674 0.23199999999999998
0.41666666666666674 0.41666666666666674 0.23199999999999998
0.4444444444444444 0.4444444444444444 0.23199999999999998
0.4444444444444444 0.4444444444444444 0.23199999999999998
0.4444444444444444 0.4444444444444444 0.23199999999999998
0.4444444444444444 0.4444444444444444 0.23199999999999998
-0.8888888888888888 -0.8888888888888888 0.22399999999999998
-0.5555555555555556 -0.5555555555555556 0.22399999999999998
-0.3055555555555556 -0.3055555555555556 0.22399999999999998
-0.25 -0.25 0.22399999999999998
-0.2222222222222222 -0.2222222222222222 0.22399999999999998
-0.19444444444444442 -0.19444444444444442 0.22399999999999998
-0.16666666666666663 -0.16666666666666663 0.22399999999999998
-0.16666666666666663 -0.16666666666666663 0.22399999999999998
-0.16666666666666663 -0.16666666666666663 0.22399999999999998
-0.16666666666666663 -0.16666666666666663 0.22399999999999998
-0.13888888888888884 -0.13888888888888884 0.22399999999999998
-0.13888888888888884 -0.13888888888888884 0.22399999999999998
-0.13888888888888884 -0.13888888888888884 0.22399999999999998
-0.13888888888888884 -0.13888888888888884 0.22399999999999998
-0.13888888888888884 -0.13888888888888884 0.22399999999999998
-0.11111111111111116 -0.11111111111111116 0.22399999999999998
-0.11111111111111116 -0.11111111111111116 0.22399999999999998
-0.11111111111111116 -0.11111111111111116 0.22399999999999998
-0.08333333333333337 -0.08333333333333337 0.22399999999999998
-0.08333333333333337 -0.08333333333333337 0.22399999999999998
-0.08333333333333337 -0.08333333333333337 0.22399999999999998
-0.05555555555555558 -0.05555555555555558 0.22399999999999998
-0.05555555555555558 -0.05555555555555558 0.22399999999999998
-0.02777777777777779 -0.02777777777777779 0.22399999999999998
0.05555555555555558 0.05555555555555558 0.22399999999999998
0.05555555555555558 0.05555555555555558 0.22399999999999998
0.11111111111111116 0.11111111111111116 0.22399999999999998
0.13888888888888884 0.13888888888888884 0.22399999999999998
0.16666666666666674 0.16666666666666674 0.22399999999999998
0.19444444444444442 0.19444444444444442 0.22399999999999998
0.22222222222222232 0.22222222222222232 0.22399999999999998
0.25 0.25 0.22399999999999998
0.25 0.25 0.22399999999999998
0.2777777777777777 0.2777777777777777 0.22399999999999998
0.33333333333333326 0.33333333333333326 0.22399999999999998
0.36111111111111116 0.36111111111111116 0.22399999999999998
0.38888888888888884 0.38888888888888884 0.22399999999999998
0.38888888888888884 0.38888888888888884 0.22399999999999998
0.41666666666666674 0.41666666666666674 0.22399999999999998
0.4444444444444444 0.4444444444444444 0.22399999999999998
0.4444444444444444 0.4444444444444444 0.22399999999999998
0.4444444444444444 0.4444444444444444 0.22399999999999998
0.4722222222222223 0.4722222222222223 0.22399999999999998
0.4722222222222223 0.4722222222222223 0.22399999999999998
-0.38888888888888884 -0.38888888888888884 0.21599999999999997
-0.38888888888888884 -0.38888888888888884 0.21599999999999997
-0.2777777777777778 -0.2777777777777778 0.21599999999999997
-0.2222222222222222 -0.2222222222222222 0.21599999999999997
-0.13888888888888884 -0.13888888888888884 0.21599999999999997
-0.13888888888888884 -0.13888888888888884 0.21599999999999997
-0.13888888888888884 -0.13888888888888884 0.21599999999999997
-0.11111111111111116 -0.11111111111111116 0.21599999999999997
-0.11111111111111116 -0.11111111111111116 0.21599999999999997
-0.08333333333333337 -0.08333333333333337 0.21599999999999997
-0.08333333333333337 -0.08333333333333337 0.21599999999999997
-0.05555555555555558 -0.05555555555555558 0.21599999999999997
-0.02777777777777779 -0.02777777777777779 0.21599999999999997
0.0 0.0 0.21599999999999997
0.0 0.0 0.21599999999999997
0.02777777777777768 0.02777777777777768 0.21599999999999997
0.08333333333333326 0.08333333333333326 0.21599999999999997
0.11111111111111116 0.11111111111111116 0.21599999999999997
0.16666666666666674 0.16666666666666674 0.21599999999999997
0.19444444444444442 0.19444444444444442 0.21599999999999997
0.22222222222222232 0.22222222222222232 0.21599999999999997
0.2777777777777777 0.2777777777777777 0.21599999999999997
0.3055555555555556 0.3055555555555556 0.21599999999999997
0.33333333333333326 0.33333333333333326 0.21599999999999997
0.41666666666666674 0.41666666666666674 0.21599999999999997
0.4444444444444444 0.4444444444444444 0.21599999999999997
0.4722222222222223 0.4722222222222223 0.21599999999999997
0.4722222222222223 0.4722222222222223 0.21599999999999997
0.4722222222222223 0.4722222222222223 0.21599999999999997
0.4722222222222223 0.4722222222222223 0.21599999999999997
0.4722222222222223 0.4722222222222223 0.21599999999999997
-0.6388888888888888 -0.6388888888888888 0.20799999999999996
-0.41666666666666663 -0.41666666666666663 0.20799999999999996
-0.3055555555555556 -0.3055555555555556 0.20799999999999996
-0.19444444444444442 -0.19444444444444442 0.20799999999999996
-0.16666666666666663 -0.16666666666666663 0.20799999999999996
-0.11111111111111116 -0.11111111111111116 0.20799999999999996
-0.05555555555555558 -0.05555555555555558 0.20799999999999996
-0.02777777777777779 -0.02777777777777779 0.20799999999999996
0.02777777777777768 0.02777777777777768 0.20799999999999996
0.05555555555555558 0.05555555555555558 0.20799999999999996
0.08333333333333326 0.08333333333333326 0.20799999999999996
0.3055555555555556 0.3055555555555556 0.20799999999999996
0.33333333333333326 0.33333333333333326 0.20799999999999996
0.36111111111111116 0.36111111111111116 0.20799999999999996
0.41666666666666674 0.41666666666666674 0.20799999999999996
0.41666666666666674 0.41666666666666674 0.20799999999999996
0.4722222222222223 0.4722222222222223 0.20799999999999996
0.4722222222222223 0.4722222222222223 0.20799999999999996
-0.2777777777777778 -0.2777777777777778 0.19999999999999996
-0.25 -0.25 0.19999999999999996
-0.2222222222222222 -0.2222222222222222 0.19999999999999996
-0.13888888888888884 -0.13888888888888884 0.19999999999999996
-0.08333333333333337 -0.08333333333333337 0.19999999999999996
-0.05555555555555558 -0.05555555555555558 0.19999999999999996
-0.02777777777777779 -0.02777777777777779 0.19999999999999996
0.0 0.0 0.19999999999999996
0.0 0.0 0.19999999999999996
0.02777777777777768 0.02777777777777768 0.19999999999999996
0.05555555555555558 0.05555555555555558 0.19999999999999996
0.11111111111111116 0.11111111111111116 0.19999999999999996
0.13888888888888884 0.13888888888888884 0.19999999999999996
0.16666666666666674 0.16666666666666674 0.19999999999999996
0.19444444444444442 0.19444444444444442 0.19999999999999996
0.36111111111111116 0.36111111111111116 0.19999999999999996
0.38888888888888884 0.38888888888888884 0.19999999999999996
0.38888888888888884 0.38888888888888884 0.19999999999999996
0.4444444444444444 0.4444444444444444 0.19999999999999996
0.4444444444444444 0.4444444444444444 0.19999999999999996
0.4722222222222223 0.4722222222222223 0.19999999999999996
0.5 0.5 0.19999999999999996
-0.5 -0.5 0.19199999999999995
-0.4444444444444444 -0.4444444444444444 0.19199999999999995
-0.38888888888888884 -0.38888888888888884 0.19199999999999995
-0.36111111111111116 -0.36111111111111116 0.19199999999999995
-0.33333333333333337 -0.33333333333333337 0.19199999999999995
-0.33333333333333337 -0.33333333333333337 0.19199999999999995
-0.3055555555555556 -0.3055555555555556 0.19199999999999995
-0.19444444444444442 -0.19444444444444442 0.19199999999999995
-0.16666666666666663 -0.16666666666666663 0.19199999999999995
-0.11111111111111116 -0.11111111111111116 0.19199999999999995
-0.08333333333333337 -0.08333333333333337 0.19199999999999995
-0.05555555555555558 -0.05555555555555558 0.19199999999999995
0.08333333333333326 0.08333333333333326 0.19199999999999995
0.11111111111111116 0.11111111111111116 0.19199999999999995
0.13888888888888884 0.13888888888888884 0.19199999999999995
0.22222222222222232 0.22222222222222232 0.19199999999999995
0.22222222222222232 0.22222222222222232 0.19199999999999995
0.25 0.25 0.19199999999999995
0.25 0.25 0.19199999999999995
0.2777777777777777 0.2777777777777777 0.19199999999999995
0.2777777777777777 0.2777777777777777 0.19199999999999995
0.3055555555555556 0.3055555555555556 0.19199999999999995
0.3055555555555556 0.3055555555555556 0.19199999999999995
0.36111111111111116 0.36111111111111116 0.19199999999999995
0.41666666666666674 0.41666666666666674 0.19199999999999995
0.4722222222222223 0.4722222222222223 0.19199999999999995
0.5 0.5 0.19199999999999995
0.5 0.5 0.19199999999999995
0.5 0.5 0.19199999999999995
0.5 0.5 0.19199999999999995
0.5 0.5 0.19199999999999995
-0.4722222222222222 -0.4722222222222222 0.18399999999999994
-0.25 -0.25 0.18399999999999994
-0.2222222222222222 -0.2222222222222222 0.18399999999999994
-0.13888888888888884 -0.13888888888888884 0.18399999999999994
-0.11111111111111116 -0.11111111111111116 0.18399999999999994
-0.02777777777777779 -0.02777777777777779 0.18399999999999994
0.0 0.0 0.18399999999999994
0.02777777777777768 0.02777777777777768 0.18399999999999994
0.05555555555555558 0.05555555555555558 0.18399999999999994
0.08333333333333326 0.08333333333333326 0.18399999999999994
0.16666666666666674 0.16666666666666674 0.18399999999999994
0.19444444444444442 0.19444444444444442 0.18399999999999994
0.33333333333333326 0.33333333333333326 0.18399999999999994
0.41666666666666674 0.41666666666666674 0.18399999999999994
0.4444444444444444 0.4444444444444444 0.18399999999999994
0.4444444444444444 0.4444444444444444 0.18399999999999994
0.4722222222222223 0.4722222222222223 0.18399999999999994
0.4722222222222223 0.4722222222222223 0.18399999999999994
0.5 0.5 0.18399999999999994
0.5 0.5 0.18399999999999994
0.5 0.5 0.18399999999999994
-0.41666666666666663 -0.41666666666666663 0.17599999999999993
-0.2777777777777778 -0.2777777777777778 0.17599999999999993
-0.16666666666666663 -0.16666666666666663 0.17599999999999993
-0.16666666666666663 -0.16666666666666663 0.17599999999999993
-0.13888888888888884 -0.13888888888888884 0.17599999999999993
-0.08333333333333337 -0.08333333333333337 0.17599999999999993
-0.05555555555555558 -0.05555555555555558 0.17599999999999993
0.16666666666666674 0.16666666666666674 0.17599999999999993
0.2777777777777777 0.2777777777777777 0.17599999999999993
0.33333333333333326 0.33333333333333326 0.17599999999999993
0.36111111111111116 0.36111111111111116 0.17599999999999993
0.38888888888888884 0.38888888888888884 0.17599999999999993
0.38888888888888884 0.38888888888888884 0.17599999999999993
0.5 0.5 0.17599999999999993
0.5277777777777777 0.5277777777777777 0.17599999999999993
0.5277777777777777 0.5277777777777777 0.17599999999999993
-0.4444444444444444 -0.4444444444444444 0.16799999999999993
-0.3055555555555556 -0.3055555555555556 0.16799999999999993
-0.19444444444444442 -0.19444444444444442 0.16799999999999993
-0.11111111111111116 -0.11111111111111116 0.16799999999999993
-0.02777777777777779 -0.02777777777777779 0.16799999999999993
0.0 0.0 0.16799999999999993
0.02777777777777768 0.02777777777777768 0.16799999999999993
0.05555555555555558 0.05555555555555558 0.16799999999999993
0.13888888888888884 0.13888888888888884 0.16799999999999993
0.19444444444444442 0.19444444444444442 0.16799999999999993
0.25 0.25 0.16799999999999993
0.3055555555555556 0.3055555555555556 0.16799999999999993
0.36111111111111116 0.36111111111111116 0.16799999999999993
0.41666666666666674 0.41666666666666674 0.16799999999999993
0.4444444444444444 0.4444444444444444 0.16799999999999993
0.4722222222222223 0.4722222222222223 0.16799999999999993
0.5 0.5 0.16799999999999993
0.5277777777777777 0.5277777777777777 0.16799999999999993
0.5277777777777777 0.5277777777777777 0.16799999999999993
0.5277777777777777 0.5277777777777777 0.16799999999999993
0.5277777777777777 0.5277777777777777 0.16799999999999993
-0.36111111111111116 -0.36111111111111116 0.15999999999999992
-0.33333333333333337 -0.33333333333333337 0.15999999999999992
-0.33333333333333337 -0.33333333333333337 0.15999999999999992
-0.25 -0.25 0.15999999999999992
-0.16666666666666663 -0.16666666666666663 0.15999999999999992
-0.13888888888888884 -0.13888888888888884 0.15999999999999992
-0.08333333333333337 -0.08333333333333337 0.15999999999999992
0.11111111111111116 0.11111111111111116 0.15999999999999992
0.11111111111111116 0.11111111111111116 0.15999999999999992
0.13888888888888884 0.13888888888888884 0.15999999999999992
0.22222222222222232 0.22222222222222232 0.15999999999999992
0.22222222222222232 0.22222222222222232 0.15999999999999992
0.33333333333333326 0.33333333333333326 0.15999999999999992
0.41666666666666674 0.41666666666666674 0.15999999999999992
0.4444444444444444 0.4444444444444444 0.15999999999999992
0.4722222222222223 0.4722222222222223 0.15999999999999992
0.5 0.5 0.15999999999999992
0.5 0.5 0.15999999999999992
0.5277777777777777 0.5277777777777777 0.15999999999999992
0.5277777777777777 0.5277777777777777 0.15999999999999992
0.5277777777777777 0.5277777777777777 0.15999999999999992
-0.4722222222222222 -0.4722222222222222 0.1519999999999999
-0.38888888888888884 -0.38888888888888884 0.1519999999999999
-0.3055555555555556 -0.3055555555555556 0.1519999999999999
-0.2777777777777778 -0.2777777777777778 0.1519999999999999
-0.2222222222222222 -0.2222222222222222 0.1519999999999999
-0.11111111111111116 -0.11111111111111116 0.1519999999999999
-0.05555555555555558 -0.05555555555555558 0.1519999999999999
0.0 0.0 0.1519999999999999
0.05555555555555558 0.05555555555555558 0.1519999999999999
0.08333333333333326 0.08333333333333326 0.1519999999999999
0.08333333333333326 0.08333333333333326 0.1519999999999999
0.16666666666666674 0.16666666666666674 0.1519999999999999
0.19444444444444442 0.19444444444444442 0.1519999999999999
0.38888888888888884 0.38888888888888884 0.1519999999999999
0.38888888888888884 0.38888888888888884 0.1519999999999999
-0.41666666666666663 -0.41666666666666663 0.1439999999999999
-0.3055555555555556 -0.3055555555555556 0.1439999999999999
-0.2777777777777778 -0.2777777777777778 0.1439999999999999
-0.19444444444444442 -0.19444444444444442 0.1439999999999999
-0.13888888888888884 -0.13888888888888884 0.1439999999999999
-0.02777777777777779 -0.02777777777777779 0.1439999999999999
0.05555555555555558 0.05555555555555558 0.1439999999999999
0.25 0.25 0.1439999999999999
0.2777777777777777 0.2777777777777777 0.1439999999999999
0.3055555555555556 0.3055555555555556 0.1439999999999999
0.36111111111111116 0.36111111111111116 0.1439999999999999
0.41666666666666674 0.41666666666666674 0.1439999999999999
0.4444444444444444 0.4444444444444444 0.1439999999999999
0.4722222222222223 0.4722222222222223 0.1439999999999999
0.5 0.5 0.1439999999999999
0.5277777777777777 0.5277777777777777 0.1439999999999999
0.5277777777777777 0.5277777777777777 0.1439999999999999
0.5555555555555556 0.5555555555555556 0.1439999999999999
0.5555555555555556 0.5555555555555556 0.1439999999999999
-0.5 -0.5 0.1359999999999999
-0.36111111111111116 -0.36111111111111116 0.1359999999999999
-0.33333333333333337 -0.33333333333333337 0.1359999999999999
-0.16666666666666663 -0.16666666666666663 0.1359999999999999
-0.08333333333333337 -0.08333333333333337 0.1359999999999999
0.02777777777777768 0.02777777777777768 0.1359999999999999
0.22222222222222232 0.22222222222222232 0.1359999999999999
0.25 0.25 0.1359999999999999
0.2777777777777777 0.2777777777777777 0.1359999999999999
0.41666666666666674 0.41666666666666674 0.1359999999999999
0.4722222222222223 0.4722222222222223 0.1359999999999999
0.5277777777777777 0.5277777777777777 0.1359999999999999
0.5277777777777777 0.5277777777777777 0.1359999999999999
0.5555555555555556 0.5555555555555556 0.1359999999999999
0.5555555555555556 0.5555555555555556 0.1359999999999999
0.5555555555555556 0.5555555555555556 0.1359999999999999
0.5555555555555556 0.5555555555555556 0.1359999999999999
0.5555555555555556 0.5555555555555556 0.1359999999999999
-0.5277777777777778 -0.5277777777777778 0.1279999999999999
-0.4444444444444444 -0.4444444444444444 0.1279999999999999
-0.05555555555555558 -0.05555555555555558 0.1279999999999999
0.13888888888888884 0.13888888888888884 0.1279999999999999
0.16666666666666674 0.16666666666666674 0.1279999999999999
0.16666666666666674 0.16666666666666674 0.1279999999999999
0.19444444444444442 0.19444444444444442 0.1279999999999999
0.19444444444444442 0.19444444444444442 0.1279999999999999
0.3055555555555556 0.3055555555555556 0.1279999999999999
0.5 0.5 0.1279999999999999
0.5555555555555556 0.5555555555555556 0.1279999999999999
0.5555555555555556 0.5555555555555556 0.1279999999999999
0.5555555555555556 0.5555555555555556 0.1279999999999999
-0.4722222222222222 -0.4722222222222222 0.1200000000000001
-0.2777777777777778 -0.2777777777777778 0.1200000000000001
-0.11111111111111116 -0.11111111111111116 0.1200000000000001
0.08333333333333326 0.08333333333333326 0.1200000000000001
0.11111111111111116 0.11111111111111116 0.1200000000000001
0.11111111111111116 0.11111111111111116 0.1200000000000001
0.13888888888888884 0.13888888888888884 0.1200000000000001
0.22222222222222232 0.22222222222222232 0.1200000000000001
0.33333333333333326 0.33333333333333326 0.1200000000000001
0.33333333333333326 0.33333333333333326 0.1200000000000001
0.38888888888888884 0.38888888888888884 0.1200000000000001
0.4444444444444444 0.4444444444444444 0.1200000000000001
0.4722222222222223 0.4722222222222223 0.1200000000000001
0.5 0.5 0.1200000000000001
0.5277777777777777 0.5277777777777777 0.1200000000000001
0.5555555555555556 0.5555555555555556 0.1200000000000001
-0.3055555555555556 -0.3055555555555556 0.1120000000000001
-0.13888888888888884 -0.13888888888888884 0.1120000000000001
0.0 0.0 0.1120000000000001
0.08333333333333326 0.08333333333333326 0.1120000000000001
0.25 0.25 0.1120000000000001
0.4444444444444444 0.4444444444444444 0.1120000000000001
0.5555555555555556 0.5555555555555556 0.1120000000000001
-0.5 -0.5 0.10400000000000009
-0.36111111111111116 -0.36111111111111116 0.10400000000000009
-0.36111111111111116 -0.36111111111111116 0.10400000000000009
-0.33333333333333337 -0.33333333333333337 0.10400000000000009
-0.33333333333333337 -0.33333333333333337 0.10400000000000009
-0.25 -0.25 0.10400000000000009
-0.2222222222222222 -0.2222222222222222 0.10400000000000009
-0.19444444444444442 -0.19444444444444442 0.10400000000000009
-0.16666666666666663 -0.16666666666666663 0.10400000000000009
-0.08333333333333337 -0.08333333333333337 0.10400000000000009
-0.02777777777777779 -0.02777777777777779 0.10400000000000009
0.22222222222222232 0.22222222222222232 0.10400000000000009
0.25 0.25 0.10400000000000009
0.36111111111111116 0.36111111111111116 0.10400000000000009
0.36111111111111116 0.36111111111111116 0.10400000000000009
0.41666666666666674 0.41666666666666674 0.10400000000000009
0.5277777777777777 0.5277777777777777 0.10400000000000009
0.5555555555555556 0.5555555555555556 0.10400000000000009
0.5833333333333333 0.5833333333333333 0.10400000000000009
0.5833333333333333 0.5833333333333333 0.10400000000000009
0.5833333333333333 0.5833333333333333 0.10400000000000009
0.5833333333333333 0.5833333333333333 0.10400000000000009
0.5833333333333333 0.5833333333333333 0.10400000000000009
0.5833333333333333 0.5833333333333333 0.10400000000000009
-0.41666666666666663 -0.41666666666666663 0.09600000000000009
-0.38888888888888884 -0.38888888888888884 0.09600000000000009
-0.3055555555555556 -0.3055555555555556 0.09600000000000009
-0.2777777777777778 -0.2777777777777778 0.09600000000000009
-0.25 -0.25 0.09600000000000009
0.05555555555555558 0.05555555555555558 0.09600000000000009
0.19444444444444442 0.19444444444444442 0.09600000000000009
0.2777777777777777 0.2777777777777777 0.09600000000000009
0.2777777777777777 0.2777777777777777 0.09600000000000009
0.38888888888888884 0.38888888888888884 0.09600000000000009
0.4722222222222223 0.4722222222222223 0.09600000000000009
0.5 0.5 0.09600000000000009
0.5277777777777777 0.5277777777777777 0.09600000000000009
0.5833333333333333 0.5833333333333333 0.09600000000000009
0.5833333333333333 0.5833333333333333 0.09600000000000009
0.5833333333333333 0.5833333333333333 0.09600000000000009
-0.05555555555555558 -0.05555555555555558 0.08800000000000008
0.5 0.5 0.08800000000000008
0.5555555555555556 0.5555555555555556 0.08800000000000008
0.5833333333333333 0.5833333333333333 0.08800000000000008
-0.5277777777777778 -0.5277777777777778 0.08000000000000007
-0.4444444444444444 -0.4444444444444444 0.08000000000000007
-0.38888888888888884 -0.38888888888888884 0.08000000000000007
-0.13888888888888884 -0.13888888888888884 0.08000000000000007
-0.11111111111111116 -0.11111111111111116 0.08000000000000007
0.02777777777777768 0.02777777777777768 0.08000000000000007
0.13888888888888884 0.13888888888888884 0.08000000000000007
0.16666666666666674 0.16666666666666674 0.08000000000000007
0.41666666666666674 0.41666666666666674 0.08000000000000007
0.4444444444444444 0.4444444444444444 0.08000000000000007
0.4722222222222223 0.4722222222222223 0.08000000000000007
0.5277777777777777 0.5277777777777777 0.08000000000000007
0.5833333333333333 0.5833333333333333 0.08000000000000007
-0.8888888888888888 -0.8888888888888888 0.07200000000000006
-0.4722222222222222 -0.4722222222222222 0.07200000000000006
-0.36111111111111116 -0.36111111111111116 0.07200000000000006
-0.33333333333333337 -0.33333333333333337 0.07200000000000006
-0.3055555555555556 -0.3055555555555556 0.07200000000000006
-0.2777777777777778 -0.2777777777777778 0.07200000000000006
-0.16666666666666663 -0.16666666666666663 0.07200000000000006
0.08333333333333326 0.08333333333333326 0.07200000000000006
0.11111111111111116 0.11111111111111116 0.07200000000000006
0.16666666666666674 0.16666666666666674 0.07200000000000006
0.19444444444444442 0.19444444444444442 0.07200000000000006
0.3055555555555556 0.3055555555555556 0.07200000000000006
0.38888888888888884 0.38888888888888884 0.07200000000000006
0.5277777777777777 0.5277777777777777 0.07200000000000006
0.5555555555555556 0.5555555555555556 0.07200000000000006
0.5555555555555556 0.5555555555555556 0.07200000000000006
0.5833333333333333 0.5833333333333333 0.07200000000000006
-0.9166666666666666 -0.9166666666666666 0.06400000000000006
-0.5833333333333333 -0.5833333333333333 0.06400000000000006
-0.25 -0.25 0.06400000000000006
-0.19444444444444442 -0.19444444444444442 0.06400000000000006
-0.08333333333333337 -0.08333333333333337 0.06400000000000006
0.0 0.0 0.06400000000000006
0.13888888888888884 0.13888888888888884 0.06400000000000006
0.3055555555555556 0.3055555555555556 0.06400000000000006
0.5 0.5 0.06400000000000006
0.6111111111111112 0.6111111111111112 0.06400000000000006
0.6111111111111112 0.6111111111111112 0.06400000000000006
0.6111111111111112 0.6111111111111112 0.06400000000000006
-0.75 -0.75 0.05600000000000005
-0.2222222222222222 -0.2222222222222222 0.05600000000000005
-0.02777777777777779 -0.02777777777777779 0.05600000000000005
0.08333333333333326 0.08333333333333326 0.05600000000000005
0.11111111111111116 0.11111111111111116 0.05600000000000005
0.22222222222222232 0.22222222222222232 0.05600000000000005
0.33333333333333326 0.33333333333333326 0.05600000000000005
0.4444444444444444 0.4444444444444444 0.05600000000000005
0.5 0.5 0.05600000000000005
0.5833333333333333 0.5833333333333333 0.05600000000000005
0.5833333333333333 0.5833333333333333 0.05600000000000005
0.6111111111111112 0.6111111111111112 0.05600000000000005
0.6111111111111112 0.6111111111111112 0.05600000000000005
0.6111111111111112 0.6111111111111112 0.05600000000000005
0.6111111111111112 0.6111111111111112 0.05600000000000005
0.6111111111111112 0.6111111111111112 0.05600000000000005
-0.75 -0.75 0.04800000000000004
-0.5 -0.5 0.04800000000000004
-0.2777777777777778 -0.2777777777777778 0.04800000000000004
-0.25 -0.25 0.04800000000000004
-0.2222222222222222 -0.2222222222222222 0.04800000000000004
-0.19444444444444442 -0.19444444444444442 0.04800000000000004
0.11111111111111116 0.11111111111111116 0.04800000000000004
0.13888888888888884 0.13888888888888884 0.04800000000000004
0.25 0.25 0.04800000000000004
0.41666666666666674 0.41666666666666674 0.04800000000000004
0.6111111111111112 0.6111111111111112 0.04800000000000004
-0.38888888888888884 -0.38888888888888884 0.040000000000000036
-0.11111111111111116 -0.11111111111111116 0.040000000000000036
-0.05555555555555558 -0.05555555555555558 0.040000000000000036
0.05555555555555558 0.05555555555555558 0.040000000000000036
0.16666666666666674 0.16666666666666674 0.040000000000000036
0.22222222222222232 0.22222222222222232 0.040000000000000036
0.25 0.25 0.040000000000000036
0.36111111111111116 0.36111111111111116 0.040000000000000036
0.36111111111111116 0.36111111111111116 0.040000000000000036
0.4722222222222223 0.4722222222222223 0.040000000000000036
0.5277777777777777 0.5277777777777777 0.040000000000000036
0.5555555555555556 0.5555555555555556 0.040000000000000036
0.5555555555555556 0.5555555555555556 0.040000000000000036
0.5833333333333333 0.5833333333333333 0.040000000000000036
0.6111111111111112 0.6111111111111112 0.040000000000000036
-0.6944444444444444 -0.6944444444444444 0.03200000000000003
-0.41666666666666663 -0.41666666666666663 0.03200000000000003
-0.41666666666666663 -0.41666666666666663 0.03200000000000003
-0.38888888888888884 -0.38888888888888884 0.03200000000000003
-0.36111111111111116 -0.36111111111111116 0.03200000000000003
-0.36111111111111116 -0.36111111111111116 0.03200000000000003
-0.33333333333333337 -0.33333333333333337 0.03200000000000003
-0.33333333333333337 -0.33333333333333337 0.03200000000000003
-0.3055555555555556 -0.3055555555555556 0.03200000000000003
-0.3055555555555556 -0.3055555555555556 0.03200000000000003
-0.16666666666666663 -0.16666666666666663 0.03200000000000003
-0.13888888888888884 -0.13888888888888884 0.03200000000000003
0.33333333333333326 0.33333333333333326 0.03200000000000003
0.4722222222222223 0.4722222222222223 0.03200000000000003
0.5277777777777777 0.5277777777777777 0.03200000000000003
0.6111111111111112 0.6111111111111112 0.03200000000000003
-0.5277777777777778 -0.5277777777777778 0.02400000000000002
-0.4444444444444444 -0.4444444444444444 0.02400000000000002
-0.2777777777777778 -0.2777777777777778 0.02400000000000002
-0.19444444444444442 -0.19444444444444442 0.02400000000000002
-0.08333333333333337 -0.08333333333333337 0.02400000000000002
0.02777777777777768 0.02777777777777768 0.02400000000000002
0.19444444444444442 0.19444444444444442 0.02400000000000002
0.38888888888888884 0.38888888888888884 0.02400000000000002
0.6111111111111112 0.6111111111111112 0.02400000000000002
0.6388888888888888 0.6388888888888888 0.02400000000000002
-0.25 -0.25 0.016000000000000014
-0.2222222222222222 -0.2222222222222222 0.016000000000000014
0.5 0.5 0.016000000000000014
0.5 0.5 0.016000000000000014
0.5833333333333333 0.5833333333333333 0.016000000000000014
0.6388888888888888 0.6388888888888888 0.016000000000000014
0.6388888888888888 0.6388888888888888 0.016000000000000014
0.6388888888888888 0.6388888888888888 0.016000000000000014
0.6388888888888888 0.6388888888888888 0.016000000000000014
-0.11111111111111116 -0.11111111111111116 0.008000000000000007
0.41666666666666674 0.41666666666666674 0.008000000000000007
0.4444444444444444 0.4444444444444444 0.008000000000000007
0.6111111111111112 0.6111111111111112 0.008000000000000007
0.6111111111111112 0.6111111111111112 0.008000000000000007
0.6388888888888888 0.6388888888888888 0.008000000000000007
0.6388888888888888 0.6388888888888888 0.008000000000000007
0.6388888888888888 0.6388888888888888 0.008000000000000007
-0.4722222222222222 -0.4722222222222222 0.0
-0.36111111111111116 -0.36111111111111116 0.0
-0.33333333333333337 -0.33333333333333337 0.0
-0.13888888888888884 -0.13888888888888884 0.0
0.0 0.0 0.0
0.11111111111111116 0.11111111111111116 0.0
0.4444444444444444 0.4444444444444444 0.0
-0.4444444444444444 -0.4444444444444444 -0.008000000000000007
-0.3055555555555556 -0.3055555555555556 -0.008000000000000007
-0.13888888888888884 -0.13888888888888884 -0.008000000000000007
-0.02777777777777779 -0.02777777777777779 -0.008000000000000007
0.5555555555555556 0.5555555555555556 -0.008000000000000007
0.5833333333333333 0.5833333333333333 -0.008000000000000007
0.6388888888888888 0.6388888888888888 -0.008000000000000007
0.6388888888888888 0.6388888888888888 -0.008000000000000007
-0.41666666666666663 -0.41666666666666663 -0.016000000000000014
-0.2222222222222222 -0.2222222222222222 -0.016000000000000014
-0.16666666666666663 -0.16666666666666663 -0.016000000000000014
-0.16666666666666663 -0.16666666666666663 -0.016000000000000014
-0.05555555555555558 -0.05555555555555558 -0.016000000000000014
0.33333333333333326 0.33333333333333326 -0.016000000000000014
0.36111111111111116 0.36111111111111116 -0.016000000000000014
0.4722222222222223 0.4722222222222223 -0.016000000000000014
0.5277777777777777 0.5277777777777777 -0.016000000000000014
0.5555555555555556 0.5555555555555556 -0.016000000000000014
-0.5 -0.5 -0.02400000000000002
-0.3055555555555556 -0.3055555555555556 -0.02400000000000002
-0.2777777777777778 -0.2777777777777778 -0.02400000000000002
-0.19444444444444442 -0.19444444444444442 -0.02400000000000002
0.13888888888888884 0.13888888888888884 -0.02400000000000002
0.2777777777777777 0.2777777777777777 -0.02400000000000002
0.3055555555555556 0.3055555555555556 -0.02400000000000002
0.38888888888888884 0.38888888888888884 -0.02400000000000002
0.38888888888888884 0.38888888888888884 -0.02400000000000002
0.5277777777777777 0.5277777777777777 -0.02400000000000002
0.5833333333333333 0.5833333333333333 -0.02400000000000002
0.6111111111111112 0.6111111111111112 -0.02400000000000002
0.6388888888888888 0.6388888888888888 -0.02400000000000002
-0.5 -0.5 -0.03200000000000003
-0.38888888888888884 -0.38888888888888884 -0.03200000000000003
-0.19444444444444442 -0.19444444444444442 -0.03200000000000003
-0.08333333333333337 -0.08333333333333337 -0.03200000000000003
0.2777777777777777 0.2777777777777777 -0.03200000000000003
0.3055555555555556 0.3055555555555556 -0.03200000000000003
0.41666666666666674 0.41666666666666674 -0.03200000000000003
0.4722222222222223 0.4722222222222223 -0.03200000000000003
0.6666666666666667 0.6666666666666667 -0.03200000000000003
-0.9166666666666666 -0.9166666666666666 -0.040000000000000036
-0.33333333333333337 -0.33333333333333337 -0.040000000000000036
-0.2777777777777778 -0.2777777777777778 -0.040000000000000036
-0.25 -0.25 -0.040000000000000036
-0.11111111111111116 -0.11111111111111116 -0.040000000000000036
-0.08333333333333337 -0.08333333333333337 -0.040000000000000036
0.41666666666666674 0.41666666666666674 -0.040000000000000036
0.5 0.5 -0.040000000000000036
0.5555555555555556 0.5555555555555556 -0.040000000000000036
0.5833333333333333 0.5833333333333333 -0.040000000000000036
0.6111111111111112 0.6111111111111112 -0.040000000000000036
0.6388888888888888 0.6388888888888888 -0.040000000000000036
0.6666666666666667 0.6666666666666667 -0.040000000000000036
0.6666666666666667 0.6666666666666667 -0.040000000000000036
0.6666666666666667 0.6666666666666667 -0.040000000000000036
0.6666666666666667 0.6666666666666667 -0.040000000000000036
-0.36111111111111116 -0.36111111111111116 -0.04800000000000004
-0.2222222222222222 -0.2222222222222222 -0.04800000000000004
-0.13888888888888884 -0.13888888888888884 -0.04800000000000004
-0.11111111111111116 -0.11111111111111116 -0.04800000000000004
0.3055555555555556 0.3055555555555556 -0.04800000000000004
0.33333333333333326 0.33333333333333326 -0.04800000000000004
0.36111111111111116 0.36111111111111116 -0.04800000000000004
0.4444444444444444 0.4444444444444444 -0.04800000000000004
0.6111111111111112 0.6111111111111112 -0.04800000000000004
0.6666666666666667 0.6666666666666667 -0.04800000000000004
-0.5277777777777778 -0.5277777777777778 -0.05600000000000005
-0.38888888888888884 -0.38888888888888884 -0.05600000000000005
-0.25 -0.25 -0.05600000000000005
0.16666666666666674 0.16666666666666674 -0.05600000000000005
0.38888888888888884 0.38888888888888884 -0.05600000000000005
0.4444444444444444 0.4444444444444444 -0.05600000000000005
0.6388888888888888 0.6388888888888888 -0.05600000000000005
0.6666666666666667 0.6666666666666667 -0.05600000000000005
0.6666666666666667 0.6666666666666667 -0.05600000000000005
-0.4722222222222222 -0.4722222222222222 -0.06399999999999995
-0.41666666666666663 -0.41666666666666663 -0.06399999999999995
-0.13888888888888884 -0.13888888888888884 -0.06399999999999995
0.2777777777777777 0.2777777777777777 -0.06399999999999995
0.33333333333333326 0.33333333333333326 -0.06399999999999995
0.36111111111111116 0.36111111111111116 -0.06399999999999995
0.38888888888888884 0.38888888888888884 -0.06399999999999995
0.5 0.5 -0.06399999999999995
0.5277777777777777 0.5277777777777777 -0.06399999999999995
0.6388888888888888 0.6388888888888888 -0.06399999999999995
-0.16666666666666663 -0.16666666666666663 -0.07199999999999995
0.16666666666666674 0.16666666666666674 -0.07199999999999995
0.25 0.25 -0.07199999999999995
0.41666666666666674 0.41666666666666674 -0.07199999999999995
0.41666666666666674 0.41666666666666674 -0.07199999999999995
0.4722222222222223 0.4722222222222223 -0.07199999999999995
0.4722222222222223 0.4722222222222223 -0.07199999999999995
0.6666666666666667 0.6666666666666667 -0.07199999999999995
-0.4444444444444444 -0.4444444444444444 -0.07999999999999996
-0.33333333333333337 -0.33333333333333337 -0.07999999999999996
-0.16666666666666663 -0.16666666666666663 -0.07999999999999996
0.19444444444444442 0.19444444444444442 -0.07999999999999996
0.3055555555555556 0.3055555555555556 -0.07999999999999996
0.33333333333333326 0.33333333333333326 -0.07999999999999996
0.36111111111111116 0.36111111111111116 -0.07999999999999996
0.5833333333333333 0.5833333333333333 -0.07999999999999996
0.6388888888888888 0.6388888888888888 -0.07999999999999996
-0.4444444444444444 -0.4444444444444444 -0.08799999999999997
-0.38888888888888884 -0.38888888888888884 -0.08799999999999997
-0.19444444444444442 -0.19444444444444442 -0.08799999999999997
0.19444444444444442 0.19444444444444442 -0.08799999999999997
0.22222222222222232 0.22222222222222232 -0.08799999999999997
0.4444444444444444 0.4444444444444444 -0.08799999999999997
0.5277777777777777 0.5277777777777777 -0.08799999999999997
0.5555555555555556 0.5555555555555556 -0.08799999999999997
0.6111111111111112 0.6111111111111112 -0.08799999999999997
0.6666666666666667 0.6666666666666667 -0.08799999999999997
0.6666666666666667 0.6666666666666667 -0.08799999999999997
-0.36111111111111116 -0.36111111111111116 -0.09599999999999997
-0.3055555555555556 -0.3055555555555556 -0.09599999999999997
0.08333333333333326 0.08333333333333326 -0.09599999999999997
0.11111111111111116 0.11111111111111116 -0.09599999999999997
0.13888888888888884 0.13888888888888884 -0.09599999999999997
0.4444444444444444 0.4444444444444444 -0.09599999999999997
0.5833333333333333 0.5833333333333333 -0.09599999999999997
-0.41666666666666663 -0.41666666666666663 -0.10399999999999998
-0.2222222222222222 -0.2222222222222222 -0.10399999999999998
0.05555555555555558 0.05555555555555558 -0.10399999999999998
0.13888888888888884 0.13888888888888884 -0.10399999999999998
0.16666666666666674 0.16666666666666674 -0.10399999999999998
0.19444444444444442 0.19444444444444442 -0.10399999999999998
0.22222222222222232 0.22222222222222232 -0.10399999999999998
0.2777777777777777 0.2777777777777777 -0.10399999999999998
0.36111111111111116 0.36111111111111116 -0.10399999999999998
0.38888888888888884 0.38888888888888884 -0.10399999999999998
0.5 0.5 -0.10399999999999998
0.6111111111111112 0.6111111111111112 -0.10399999999999998
-0.08333333333333337 -0.08333333333333337 -0.11199999999999999
-0.05555555555555558 -0.05555555555555558 -0.11199999999999999
0.02777777777777768 0.02777777777777768 -0.11199999999999999
0.08333333333333326 0.08333333333333326 -0.11199999999999999
0.11111111111111116 0.11111111111111116 -0.11199999999999999
0.16666666666666674 0.16666666666666674 -0.11199999999999999
0.22222222222222232 0.22222222222222232 -0.11199999999999999
0.25 0.25 -0.11199999999999999
0.33333333333333326 0.33333333333333326 -0.11199999999999999
0.5 0.5 -0.11199999999999999
0.6388888888888888 0.6388888888888888 -0.11199999999999999
0.6666666666666667 0.6666666666666667 -0.11199999999999999
0.6666666666666667 0.6666666666666667 -0.11199999999999999
0.6944444444444444 0.6944444444444444 -0.11199999999999999
0.6944444444444444 0.6944444444444444 -0.11199999999999999
0.6944444444444444 0.6944444444444444 -0.11199999999999999
-0.19444444444444442 -0.19444444444444442 -0.12
0.0 0.0 -0.12
0.05555555555555558 0.05555555555555558 -0.12
0.08333333333333326 0.08333333333333326 -0.12
0.11111111111111116 0.11111111111111116 -0.12
0.11111111111111116 0.11111111111111116 -0.12
0.13888888888888884 0.13888888888888884 -0.12
0.13888888888888884 0.13888888888888884 -0.12
0.16666666666666674 0.16666666666666674 -0.12
0.19444444444444442 0.19444444444444442 -0.12
0.25 0.25 -0.12
0.4722222222222223 0.4722222222222223 -0.12
0.6944444444444444 0.6944444444444444 -0.12
0.6944444444444444 0.6944444444444444 -0.12
-0.25 -0.25 -0.128
-0.02777777777777779 -0.02777777777777779 -0.128
0.02777777777777768 0.02777777777777768 -0.128
0.05555555555555558 0.05555555555555558 -0.128
0.19444444444444442 0.19444444444444442 -0.128
0.22222222222222232 0.22222222222222232 -0.128
0.2777777777777777 0.2777777777777777 -0.128
0.3055555555555556 0.3055555555555556 -0.128
0.38888888888888884 0.38888888888888884 -0.128
0.41666666666666674 0.41666666666666674 -0.128
0.4722222222222223 0.4722222222222223 -0.128
0.5555555555555556 0.5555555555555556 -0.128
0.5833333333333333 0.5833333333333333 -0.128
0.6944444444444444 0.6944444444444444 -0.128
-0.4722222222222222 -0.4722222222222222 -0.136
0.0 0.0 -0.136
0.11111111111111116 0.11111111111111116 -0.136
0.11111111111111116 0.11111111111111116 -0.136
0.13888888888888884 0.13888888888888884 -0.136
0.13888888888888884 0.13888888888888884 -0.136
0.16666666666666674 0.16666666666666674 -0.136
0.16666666666666674 0.16666666666666674 -0.136
0.19444444444444442 0.19444444444444442 -0.136
0.22222222222222232 0.22222222222222232 -0.136
0.25 0.25 -0.136
0.6388888888888888 0.6388888888888888 -0.136
0.6944444444444444 0.6944444444444444 -0.136
-0.2222222222222222 -0.2222222222222222 -0.14400000000000002
-0.16666666666666663 -0.16666666666666663 -0.14400000000000002
0.02777777777777768 0.02777777777777768 -0.14400000000000002
0.08333333333333326 0.08333333333333326 -0.14400000000000002
0.19444444444444442 0.19444444444444442 -0.14400000000000002
0.22222222222222232 0.22222222222222232 -0.14400000000000002
0.22222222222222232 0.22222222222222232 -0.14400000000000002
0.25 0.25 -0.14400000000000002
0.2777777777777777 0.2777777777777777 -0.14400000000000002
0.2777777777777777 0.2777777777777777 -0.14400000000000002
0.3055555555555556 0.3055555555555556 -0.14400000000000002
0.41666666666666674 0.41666666666666674 -0.14400000000000002
0.5555555555555556 0.5555555555555556 -0.14400000000000002
0.6111111111111112 0.6111111111111112 -0.14400000000000002
-0.2777777777777778 -0.2777777777777778 -0.15200000000000002
-0.05555555555555558 -0.05555555555555558 -0.15200000000000002
-0.02777777777777779 -0.02777777777777779 -0.15200000000000002
0.0 0.0 -0.15200000000000002
0.05555555555555558 0.05555555555555558 -0.15200000000000002
0.11111111111111116 0.11111111111111116 -0.15200000000000002
0.13888888888888884 0.13888888888888884 -0.15200000000000002
0.25 0.25 -0.15200000000000002
0.25 0.25 -0.15200000000000002
0.3055555555555556 0.3055555555555556 -0.15200000000000002
0.5277777777777777 0.5277777777777777 -0.15200000000000002
0.6944444444444444 0.6944444444444444 -0.15200000000000002
-0.13888888888888884 -0.13888888888888884 -0.16000000000000003
-0.08333333333333337 -0.08333333333333337 -0.16000000000000003
-0.02777777777777779 -0.02777777777777779 -0.16000000000000003
-0.02777777777777779 -0.02777777777777779 -0.16000000000000003
0.0 0.0 -0.16000000000000003
0.02777777777777768 0.02777777777777768 -0.16000000000000003
0.02777777777777768 0.02777777777777768 -0.16000000000000003
0.16666666666666674 0.16666666666666674 -0.16000000000000003
0.19444444444444442 0.19444444444444442 -0.16000000000000003
0.33333333333333326 0.33333333333333326 -0.16000000000000003
0.5277777777777777 0.5277777777777777 -0.16000000000000003
0.6666666666666667 0.6666666666666667 -0.16000000000000003
0.6944444444444444 0.6944444444444444 -0.16000000000000003
-0.25 -0.25 -0.16800000000000004
-0.05555555555555558 -0.05555555555555558 -0.16800000000000004
-0.05555555555555558 -0.05555555555555558 -0.16800000000000004
-0.02777777777777779 -0.02777777777777779 -0.16800000000000004
0.0 0.0 -0.16800000000000004
0.02777777777777768 0.02777777777777768 -0.16800000000000004
0.05555555555555558 0.05555555555555558 -0.16800000000000004
0.08333333333333326 0.08333333333333326 -0.16800000000000004
0.08333333333333326 0.08333333333333326 -0.16800000000000004
0.11111111111111116 0.11111111111111116 -0.16800000000000004
0.11111111111111116 0.11111111111111116 -0.16800000000000004
0.13888888888888884 0.13888888888888884 -0.16800000000000004
0.13888888888888884 0.13888888888888884 -0.16800000000000004
0.16666666666666674 0.16666666666666674 -0.16800000000000004
0.19444444444444442 0.19444444444444442 -0.16800000000000004
0.22222222222222232 0.22222222222222232 -0.16800000000000004
0.25 0.25 -0.16800000000000004
0.2777777777777777 0.2777777777777777 -0.16800000000000004
0.2777777777777777 0.2777777777777777 -0.16800000000000004
0.33333333333333326 0.33333333333333326 -0.16800000000000004
0.4444444444444444 0.4444444444444444 -0.16800000000000004
0.6388888888888888 0.6388888888888888 -0.16800000000000004
-0.5 -0.5 -0.17600000000000005
-0.4722222222222222 -0.4722222222222222 -0.17600000000000005
-0.2777777777777778 -0.2777777777777778 -0.17600000000000005
-0.11111111111111116 -0.11111111111111116 -0.17600000000000005
-0.08333333333333337 -0.08333333333333337 -0.17600000000000005
-0.05555555555555558 -0.05555555555555558 -0.17600000000000005
0.0 0.0 -0.17600000000000005
0.05555555555555558 0.05555555555555558 -0.17600000000000005
0.16666666666666674 0.16666666666666674 -0.17600000000000005
0.22222222222222232 0.22222222222222232 -0.17600000000000005
0.3055555555555556 0.3055555555555556 -0.17600000000000005
0.36111111111111116 0.36111111111111116 -0.17600000000000005
0.5 0.5 -0.17600000000000005
0.5 0.5 -0.17600000000000005
0.6666666666666667 0.6666666666666667 -0.17600000000000005
0.6944444444444444 0.6944444444444444 -0.17600000000000005
-0.5277777777777778 -0.5277777777777778 -0.18400000000000005
-0.38888888888888884 -0.38888888888888884 -0.18400000000000005
-0.11111111111111116 -0.11111111111111116 -0.18400000000000005
-0.08333333333333337 -0.08333333333333337 -0.18400000000000005
-0.05555555555555558 -0.05555555555555558 -0.18400000000000005
-0.02777777777777779 -0.02777777777777779 -0.18400000000000005
-0.02777777777777779 -0.02777777777777779 -0.18400000000000005
0.02777777777777768 0.02777777777777768 -0.18400000000000005
0.19444444444444442 0.19444444444444442 -0.18400000000000005
-0.4444444444444444 -0.4444444444444444 -0.19199999999999995
-0.11111111111111116 -0.11111111111111116 -0.19199999999999995
-0.08333333333333337 -0.08333333333333337 -0.19199999999999995
-0.05555555555555558 -0.05555555555555558 -0.19199999999999995
0.2777777777777777 0.2777777777777777 -0.19199999999999995
0.3055555555555556 0.3055555555555556 -0.19199999999999995
0.33333333333333326 0.33333333333333326 -0.19199999999999995
0.36111111111111116 0.36111111111111116 -0.19199999999999995
-0.13888888888888884 -0.13888888888888884 -0.19999999999999996
0.0 0.0 -0.19999999999999996
0.02777777777777768 0.02777777777777768 -0.19999999999999996
0.05555555555555558 0.05555555555555558 -0.19999999999999996
0.22222222222222232 0.22222222222222232 -0.19999999999999996
0.33333333333333326 0.33333333333333326 -0.19999999999999996
0.4444444444444444 0.4444444444444444 -0.19999999999999996
0.5833333333333333 0.5833333333333333 -0.19999999999999996
0.5833333333333333 0.5833333333333333 -0.19999999999999996
0.6944444444444444 0.6944444444444444 -0.19999999999999996
-0.11111111111111116 -0.11111111111111116 -0.20799999999999996
-0.08333333333333337 -0.08333333333333337 -0.20799999999999996
-0.05555555555555558 -0.05555555555555558 -0.20799999999999996
-0.02777777777777779 -0.02777777777777779 -0.20799999999999996
0.0 0.0 -0.20799999999999996
0.08333333333333326 0.08333333333333326 -0.20799999999999996
0.11111111111111116 0.11111111111111116 -0.20799999999999996
0.13888888888888884 0.13888888888888884 -0.20799999999999996
0.25 0.25 -0.20799999999999996
0.25 0.25 -0.20799999999999996
0.5555555555555556 0.5555555555555556 -0.20799999999999996
0.6111111111111112 0.6111111111111112 -0.20799999999999996
